ply
format ascii 1.0
element vertex 70
property float x
property float y
property float z
property uchar red
property uchar green
property uchar blue
end_header
-0.438782 0.038505 1.067828 10 237 87
-0.363438 -0.023169 1.040322 114 4 240
-0.397140 0.038466 1.359315 25 94 240
-0.397140 0.038466 1.359315 232 101 189
-0.396753 0.041808 1.359182 181 14 123
-0.359328 0.037846 1.368445 25 173 97
-0.352409 0.040654 1.367665 58 197 137
-0.352409 0.040654 1.367665 187 115 162
-0.351297 0.059304 1.366705 126 123 246
-0.268893 0.046293 1.393747 118 217 232
-0.279362 -0.215916 1.591174 141 149 146
-0.287329 -0.283503 2.150903 20 214 67
-0.296437 -0.325293 2.521339 114 61 160
0.159463 -0.483938 1.678129 234 107 172
0.281596 -0.004099 2.103676 57 95 73
0.283009 -0.221003 1.922876 37 137 136
0.289059 -0.416259 1.937312 22 191 153
0.283014 -0.216136 1.880086 170 58 130
0.285648 -0.180474 1.631706 192 106 48
0.292580 -0.342510 1.593844 243 22 33
0.324297 -0.138500 1.319531 210 96 119
0.326682 -0.098195 1.322689 163 9 166
0.328114 -0.072166 1.324542 117 114 152
0.328115 -0.109161 1.323691 205 40 169
0.328115 -0.109161 1.323691 34 214 184
0.328640 -0.138796 1.316761 100 144 193
0.331990 0.047927 1.321716 193 198 88
0.332894 -0.004307 1.320508 237 216 230
0.333821 -0.008076 1.323378 117 240 121
0.333021 -0.071601 1.318076 98 177 38
0.338619 -0.011613 1.328056 20 110 223
0.335714 -0.006823 1.315995 3 214 248
0.336694 -0.096462 1.307786 162 240 233
0.339938 -0.006953 1.314598 202 51 210
0.340525 0.009851 1.313712 1 235 125
0.341116 -0.075596 1.304710 237 193 47
0.342220 -0.063880 1.305314 12 38 23
0.342220 -0.063880 1.305314 243 45 173
0.342198 -0.045980 1.304962 28 151 202
0.342677 -0.079996 1.304007 11 73 42
0.350574 -0.045245 1.295858 238 84 183
0.355392 -0.043554 1.294108 173 254 201
0.355392 -0.043554 1.294108 116 181 57
0.356236 -0.056734 1.290273 44 107 3
0.356272 -0.052081 1.290585 0 247 223
0.352864 -0.026762 1.273641 188 208 94
0.358862 -0.104507 1.280004 15 113 93
0.359148 -0.083341 1.280094 198 206 251
0.386188 -0.225989 1.350456 46 172 59
0.386188 -0.225989 1.350456 230 112 234
0.365126 -0.050760 1.276612 110 21 125
0.366935 -0.136141 1.266940 239 30 22
0.407584 -0.092923 1.358847 179 152 34
0.424449 -0.224689 1.345000 74 91 183
0.437927 -0.102385 1.358756 177 37 168
0.444506 -0.089335 1.358542 116 117 150
0.442651 -0.147470 1.349424 11 120 26
0.449792 -0.102631 1.354291 68 180 2
0.436766 -0.140366 1.198126 77 158 13
0.439295 -0.144142 1.199380 246 216 176
0.441219 -0.147617 1.200070 85 3 84
0.516666 -0.225199 1.343080 141 115 228
0.516666 -0.225199 1.343080 130 135 145
0.439796 -0.085333 1.058729 94 48 129
0.442557 -0.107214 1.059099 194 34 39
0.447370 -0.109437 1.056253 120 212 49
0.448383 -0.047557 1.057527 116 8 211
0.447566 -0.106468 1.055753 161 242 131
0.451905 -0.039543 1.050315 165 171 125
0.451905 -0.039543 1.050315 90 197 196
